12.3207 20 -54.5455
12.3207 20 -53.5354
12.3207 20 -52.5253
12.3207 20 -51.5152
12.3207 20 -50.5051
12.3207 20 -49.4949
12.3207 20 -48.4848
12.3207 20 -47.4747
12.3207 20 -46.4646
12.3207 20 -45.4545
12.3207 20 -44.4444
12.3207 20 -43.4343
12.3207 20 -42.4242
12.3207 20 -41.4141
12.3207 20 -40.404
12.3207 20 -39.3939
12.3207 20 -38.3838
12.3207 20 -37.3737
12.3207 20 -36.3636
12.3207 20 -35.3535
12.3207 20 -34.3434
12.3207 20 -33.3333
12.3207 20 -32.3232
12.3207 20 -31.3131
12.3207 20 -30.303
12.3207 20 -29.2929
12.3207 20 -28.2828
12.3207 20 -27.2727
12.3207 20 -26.2626
12.3207 20 -25.2525
12.3207 20 -24.2424
12.3207 20 -23.2323
12.3207 20 -22.2222
12.3207 20 -21.2121
12.3207 20 -20.202
12.3207 20 -19.1919
12.3207 20 -18.1818
12.3207 20 -17.1717
12.3207 20 -16.1616
12.3207 20 -15.1515
12.3207 20 -14.1414
12.3207 20 -13.1313
12.3207 20 -12.1212
12.3207 20 -11.1111
12.3207 20 -10.101
12.3207 20 -9.09091
12.3207 20 -8.08081
12.3207 20 -7.07071
12.3207 20 -6.06061
12.3207 20 -5.05051
12.3207 20 -4.0404
12.3207 20 -3.0303
12.3207 20 -2.0202
12.3207 20 -1.0101
12.3207 20 0
11.3159 20 -100
11.3159 20 -98.9899
11.3159 20 -97.9798
11.3159 20 -96.9697
11.3159 20 -95.9596
11.3159 20 -94.9495
11.3159 20 -93.9394
11.3159 20 -92.9293
11.3159 20 -91.9192
11.3159 20 -90.9091
11.3159 20 -89.899
11.3159 20 -88.8889
11.3159 20 -87.8788
11.3159 20 -86.8687
11.3159 20 -85.8586
11.3159 20 -84.8485
11.3159 20 -83.8384
11.3159 20 -82.8283
11.3159 20 -81.8182
11.3159 20 -80.8081
11.3159 20 -79.798
11.3159 20 -78.7879
11.3159 20 -77.7778
11.3159 20 -76.7677
11.3159 20 -75.7576
11.3159 20 -74.7475
11.3159 20 -73.7374
11.3159 20 -72.7273
11.3159 20 -71.7172
11.3159 20 -70.7071
11.3159 20 -69.697
11.3159 20 -68.6869
11.3159 20 -67.6768
11.3159 20 -66.6667
11.3159 20 -65.6566
11.3159 20 -64.6465
11.3159 20 -63.6364
11.3159 20 -62.6263
11.3159 20 -61.6162
11.3159 20 -60.6061
11.3159 20 -59.596
11.3159 20 -58.5859
11.3159 20 -57.5758
11.3159 20 -56.5657
11.3159 20 -55.5556
11.3159 20 -54.5455
11.3159 20 -53.5354
11.3159 20 -52.5253
11.3159 20 -51.5152
11.3159 20 -50.5051
11.3159 20 -49.4949
11.3159 20 -48.4848
11.3159 20 -47.4747
11.3159 20 -46.4646
11.3159 20 -45.4545
11.3159 20 -44.4444
11.3159 20 -43.4343
11.3159 20 -42.4242
11.3159 20 -41.4141
11.3159 20 -40.404
11.3159 20 -39.3939
11.3159 20 -38.3838
11.3159 20 -37.3737
11.3159 20 -36.3636
11.3159 20 -35.3535
11.3159 20 -34.3434
11.3159 20 -33.3333
11.3159 20 -32.3232
11.3159 20 -31.3131
11.3159 20 -30.303
11.3159 20 -29.2929
11.3159 20 -28.2828
11.3159 20 -27.2727
11.3159 20 -26.2626
11.3159 20 -25.2525
11.3159 20 -24.2424
11.3159 20 -23.2323
11.3159 20 -22.2222
11.3159 20 -21.2121
11.3159 20 -20.202
11.3159 20 -19.1919
11.3159 20 -18.1818
11.3159 20 -17.1717
11.3159 20 -16.1616
11.3159 20 -15.1515
11.3159 20 -14.1414
11.3159 20 -13.1313
11.3159 20 -12.1212
11.3159 20 -11.1111
11.3159 20 -10.101
11.3159 20 -9.09091
11.3159 20 -8.08081
11.3159 20 -7.07071
11.3159 20 -6.06061
11.3159 20 -5.05051
11.3159 20 -4.0404
11.3159 20 -3.0303
11.3159 20 -2.0202
11.3159 20 -1.0101
11.3159 20 0
10.3111 20 -100
10.3111 20 -98.9899
10.3111 20 -97.9798
10.3111 20 -96.9697
10.3111 20 -95.9596
10.3111 20 -94.9495
10.3111 20 -93.9394
10.3111 20 -92.9293
10.3111 20 -91.9192
10.3111 20 -90.9091
10.3111 20 -89.899
10.3111 20 -88.8889
10.3111 20 -87.8788
10.3111 20 -86.8687
10.3111 20 -85.8586
10.3111 20 -84.8485
10.3111 20 -83.8384
10.3111 20 -82.8283
10.3111 20 -81.8182
10.3111 20 -80.8081
10.3111 20 -79.798
10.3111 20 -78.7879
10.3111 20 -77.7778
10.3111 20 -76.7677
10.3111 20 -75.7576
10.3111 20 -74.7475
10.3111 20 -73.7374
10.3111 20 -72.7273
10.3111 20 -71.7172
10.3111 20 -70.7071
10.3111 20 -69.697
10.3111 20 -68.6869
10.3111 20 -67.6768
10.3111 20 -66.6667
10.3111 20 -65.6566
10.3111 20 -64.6465
10.3111 20 -63.6364
10.3111 20 -62.6263
10.3111 20 -61.6162
10.3111 20 -60.6061
10.3111 20 -59.596
10.3111 20 -58.5859
10.3111 20 -57.5758
10.3111 20 -56.5657
10.3111 20 -55.5556
10.3111 20 -54.5455
10.3111 20 -53.5354
10.3111 20 -52.5253
10.3111 20 -51.5152
10.3111 20 -50.5051
10.3111 20 -49.4949
10.3111 20 -48.4848
10.3111 20 -47.4747
10.3111 20 -46.4646
10.3111 20 -45.4545
10.3111 20 -44.4444
10.3111 20 -43.4343
10.3111 20 -42.4242
10.3111 20 -41.4141
10.3111 20 -40.404
10.3111 20 -39.3939
10.3111 20 -38.3838
10.3111 20 -37.3737
10.3111 20 -36.3636
10.3111 20 -35.3535
10.3111 20 -34.3434
10.3111 20 -33.3333
10.3111 20 -32.3232
10.3111 20 -31.3131
10.3111 20 -30.303
10.3111 20 -29.2929
10.3111 20 -28.2828
10.3111 20 -27.2727
10.3111 20 -26.2626
10.3111 20 -25.2525
10.3111 20 -24.2424
10.3111 20 -23.2323
10.3111 20 -22.2222
10.3111 20 -21.2121
10.3111 20 -20.202
10.3111 20 -19.1919
10.3111 20 -18.1818
10.3111 20 -17.1717
10.3111 20 -16.1616
10.3111 20 -15.1515
10.3111 20 -14.1414
10.3111 20 -13.1313
10.3111 20 -12.1212
10.3111 20 -11.1111
10.3111 20 -10.101
10.3111 20 -9.09091
10.3111 20 -8.08081
10.3111 20 -7.07071
10.3111 20 -6.06061
10.3111 20 -5.05051
10.3111 20 -4.0404
10.3111 20 -3.0303
10.3111 20 -2.0202
10.3111 20 -1.0101
10.3111 20 0
9.30631 20 -100
9.30631 20 -98.9899
9.30631 20 -97.9798
9.30631 20 -96.9697
9.30631 20 -95.9596
9.30631 20 -94.9495
9.30631 20 -93.9394
9.30631 20 -92.9293
9.30631 20 -91.9192
9.30631 20 -90.9091
9.30631 20 -89.899
9.30631 20 -88.8889
9.30631 20 -87.8788
9.30631 20 -86.8687
9.30631 20 -85.8586
9.30631 20 -84.8485
9.30631 20 -83.8384
9.30631 20 -82.8283
9.30631 20 -81.8182
9.30631 20 -80.8081
9.30631 20 -79.798
9.30631 20 -78.7879
9.30631 20 -77.7778
9.30631 20 -76.7677
9.30631 20 -75.7576
9.30631 20 -74.7475
9.30631 20 -73.7374
9.30631 20 -72.7273
9.30631 20 -71.7172
9.30631 20 -70.7071
9.30631 20 -69.697
9.30631 20 -68.6869
9.30631 20 -67.6768
9.30631 20 -66.6667
9.30631 20 -65.6566
9.30631 20 -64.6465
9.30631 20 -63.6364
9.30631 20 -62.6263
9.30631 20 -61.6162
9.30631 20 -60.6061
9.30631 20 -59.596
9.30631 20 -58.5859
9.30631 20 -57.5758
9.30631 20 -56.5657
9.30631 20 -55.5556
9.30631 20 -54.5455
9.30631 20 -53.5354
9.30631 20 -52.5253
9.30631 20 -51.5152
9.30631 20 -50.5051
9.30631 20 -49.4949
9.30631 20 -48.4848
9.30631 20 -47.4747
9.30631 20 -46.4646
9.30631 20 -45.4545
9.30631 20 -44.4444
9.30631 20 -43.4343
9.30631 20 -42.4242
9.30631 20 -41.4141
9.30631 20 -40.404
9.30631 20 -39.3939
9.30631 20 -38.3838
9.30631 20 -37.3737
9.30631 20 -36.3636
9.30631 20 -35.3535
9.30631 20 -34.3434
9.30631 20 -33.3333
9.30631 20 -32.3232
9.30631 20 -31.3131
9.30631 20 -30.303
9.30631 20 -29.2929
9.30631 20 -28.2828
9.30631 20 -27.2727
9.30631 20 -26.2626
9.30631 20 -25.2525
9.30631 20 -24.2424
9.30631 20 -23.2323
9.30631 20 -22.2222
9.30631 20 -21.2121
9.30631 20 -20.202
9.30631 20 -19.1919
9.30631 20 -18.1818
9.30631 20 -17.1717
9.30631 20 -16.1616
9.30631 20 -15.1515
9.30631 20 -14.1414
9.30631 20 -13.1313
9.30631 20 -12.1212
9.30631 20 -11.1111
9.30631 20 -10.101
9.30631 20 -9.09091
9.30631 20 -8.08081
9.30631 20 -7.07071
9.30631 20 -6.06061
9.30631 20 -5.05051
9.30631 20 -4.0404
9.30631 20 -3.0303
9.30631 20 -2.0202
9.30631 20 -1.0101
9.30631 20 0
8.30153 20 -100
8.30153 20 -98.9899
8.30153 20 -97.9798
8.30153 20 -96.9697
8.30153 20 -95.9596
8.30153 20 -94.9495
8.30153 20 -93.9394
8.30153 20 -92.9293
8.30153 20 -91.9192
8.30153 20 -90.9091
8.30153 20 -89.899
8.30153 20 -88.8889
8.30153 20 -87.8788
8.30153 20 -86.8687
8.30153 20 -85.8586
8.30153 20 -84.8485
8.30153 20 -83.8384
8.30153 20 -82.8283
8.30153 20 -81.8182
8.30153 20 -80.8081
8.30153 20 -79.798
8.30153 20 -78.7879
8.30153 20 -77.7778
8.30153 20 -76.7677
8.30153 20 -75.7576
8.30153 20 -74.7475
8.30153 20 -73.7374
8.30153 20 -72.7273
8.30153 20 -71.7172
8.30153 20 -70.7071
8.30153 20 -69.697
8.30153 20 -68.6869
8.30153 20 -67.6768
8.30153 20 -66.6667
8.30153 20 -65.6566
8.30153 20 -64.6465
8.30153 20 -63.6364
8.30153 20 -62.6263
8.30153 20 -61.6162
8.30153 20 -60.6061
8.30153 20 -59.596
8.30153 20 -58.5859
8.30153 20 -57.5758
8.30153 20 -56.5657
8.30153 20 -55.5556
8.30153 20 -54.5455
8.30153 20 -53.5354
8.30153 20 -52.5253
8.30153 20 -51.5152
8.30153 20 -50.5051
8.30153 20 -49.4949
8.30153 20 -48.4848
8.30153 20 -47.4747
8.30153 20 -46.4646
8.30153 20 -45.4545
8.30153 20 -44.4444
8.30153 20 -43.4343
8.30153 20 -42.4242
8.30153 20 -41.4141
8.30153 20 -40.404
8.30153 20 -39.3939
8.30153 20 -38.3838
8.30153 20 -37.3737
8.30153 20 -36.3636
8.30153 20 -35.3535
8.30153 20 -34.3434
8.30153 20 -33.3333
8.30153 20 -32.3232
8.30153 20 -31.3131
8.30153 20 -30.303
8.30153 20 -29.2929
8.30153 20 -28.2828
8.30153 20 -27.2727
8.30153 20 -26.2626
8.30153 20 -25.2525
8.30153 20 -24.2424
8.30153 20 -23.2323
8.30153 20 -22.2222
8.30153 20 -21.2121
8.30153 20 -20.202
8.30153 20 -19.1919
8.30153 20 -18.1818
8.30153 20 -17.1717
8.30153 20 -16.1616
8.30153 20 -15.1515
8.30153 20 -14.1414
8.30153 20 -13.1313
8.30153 20 -12.1212
8.30153 20 -11.1111
8.30153 20 -10.101
8.30153 20 -9.09091
8.30153 20 -8.08081
8.30153 20 -7.07071
8.30153 20 -6.06061
8.30153 20 -5.05051
8.30153 20 -4.0404
8.30153 20 -3.0303
8.30153 20 -2.0202
8.30153 20 -1.0101
8.30153 20 0
7.29674 20 -100
7.29674 20 -98.9899
7.29674 20 -97.9798
7.29674 20 -96.9697
7.29674 20 -95.9596
7.29674 20 -94.9495
7.29674 20 -93.9394
7.29674 20 -92.9293
7.29674 20 -91.9192
7.29674 20 -90.9091
7.29674 20 -89.899
7.29674 20 -88.8889
7.29674 20 -87.8788
7.29674 20 -86.8687
7.29674 20 -85.8586
7.29674 20 -84.8485
7.29674 20 -83.8384
7.29674 20 -82.8283
7.29674 20 -81.8182
7.29674 20 -80.8081
7.29674 20 -79.798
7.29674 20 -78.7879
7.29674 20 -77.7778
7.29674 20 -76.7677
7.29674 20 -75.7576
7.29674 20 -74.7475
7.29674 20 -73.7374
7.29674 20 -72.7273
7.29674 20 -71.7172
7.29674 20 -70.7071
7.29674 20 -69.697
7.29674 20 -68.6869
7.29674 20 -67.6768
7.29674 20 -66.6667
7.29674 20 -65.6566
7.29674 20 -64.6465
7.29674 20 -63.6364
7.29674 20 -62.6263
7.29674 20 -61.6162
7.29674 20 -60.6061
7.29674 20 -59.596
7.29674 20 -58.5859
7.29674 20 -57.5758
7.29674 20 -56.5657
7.29674 20 -55.5556
7.29674 20 -54.5455
7.29674 20 -53.5354
7.29674 20 -52.5253
7.29674 20 -51.5152
7.29674 20 -50.5051
7.29674 20 -49.4949
7.29674 20 -48.4848
7.29674 20 -47.4747
7.29674 20 -46.4646
7.29674 20 -45.4545
7.29674 20 -44.4444
7.29674 20 -43.4343
7.29674 20 -42.4242
7.29674 20 -41.4141
7.29674 20 -40.404
7.29674 20 -39.3939
7.29674 20 -38.3838
7.29674 20 -37.3737
7.29674 20 -36.3636
7.29674 20 -35.3535
7.29674 20 -34.3434
7.29674 20 -33.3333
7.29674 20 -32.3232
7.29674 20 -31.3131
7.29674 20 -30.303
7.29674 20 -29.2929
7.29674 20 -28.2828
7.29674 20 -27.2727
7.29674 20 -26.2626
7.29674 20 -25.2525
7.29674 20 -24.2424
7.29674 20 -23.2323
7.29674 20 -22.2222
7.29674 20 -21.2121
7.29674 20 -20.202
7.29674 20 -19.1919
7.29674 20 -18.1818
7.29674 20 -17.1717
7.29674 20 -16.1616
7.29674 20 -15.1515
7.29674 20 -14.1414
7.29674 20 -13.1313
7.29674 20 -12.1212
7.29674 20 -11.1111
7.29674 20 -10.101
7.29674 20 -9.09091
7.29674 20 -8.08081
7.29674 20 -7.07071
7.29674 20 -6.06061
7.29674 20 -5.05051
7.29674 20 -4.0404
7.29674 20 -3.0303
7.29674 20 -2.0202
7.29674 20 -1.0101
7.29674 20 0
6.29196 20 -100
6.29196 20 -98.9899
6.29196 20 -97.9798
6.29196 20 -96.9697
6.29196 20 -95.9596
6.29196 20 -94.9495
6.29196 20 -93.9394
6.29196 20 -92.9293
6.29196 20 -91.9192
6.29196 20 -90.9091
6.29196 20 -89.899
6.29196 20 -88.8889
6.29196 20 -87.8788
6.29196 20 -86.8687
6.29196 20 -85.8586
6.29196 20 -84.8485
6.29196 20 -83.8384
6.29196 20 -82.8283
6.29196 20 -81.8182
6.29196 20 -80.8081
6.29196 20 -79.798
6.29196 20 -78.7879
6.29196 20 -77.7778
6.29196 20 -76.7677
6.29196 20 -75.7576
6.29196 20 -74.7475
6.29196 20 -73.7374
6.29196 20 -72.7273
6.29196 20 -71.7172
6.29196 20 -70.7071
6.29196 20 -69.697
6.29196 20 -68.6869
6.29196 20 -67.6768
6.29196 20 -66.6667
6.29196 20 -65.6566
6.29196 20 -64.6465
6.29196 20 -63.6364
6.29196 20 -62.6263
6.29196 20 -61.6162
6.29196 20 -60.6061
6.29196 20 -59.596
6.29196 20 -58.5859
6.29196 20 -57.5758
6.29196 20 -56.5657
6.29196 20 -55.5556
6.29196 20 -54.5455
6.29196 20 -53.5354
6.29196 20 -52.5253
6.29196 20 -51.5152
6.29196 20 -50.5051
6.29196 20 -49.4949
6.29196 20 -48.4848
6.29196 20 -47.4747
6.29196 20 -46.4646
6.29196 20 -45.4545
6.29196 20 -44.4444
6.29196 20 -43.4343
6.29196 20 -42.4242
6.29196 20 -41.4141
6.29196 20 -40.404
6.29196 20 -39.3939
6.29196 20 -38.3838
6.29196 20 -37.3737
6.29196 20 -36.3636
6.29196 20 -35.3535
6.29196 20 -34.3434
6.29196 20 -33.3333
6.29196 20 -32.3232
6.29196 20 -31.3131
6.29196 20 -30.303
6.29196 20 -29.2929
6.29196 20 -28.2828
6.29196 20 -27.2727
6.29196 20 -26.2626
6.29196 20 -25.2525
6.29196 20 -24.2424
6.29196 20 -23.2323
6.29196 20 -22.2222
6.29196 20 -21.2121
6.29196 20 -20.202
6.29196 20 -19.1919
6.29196 20 -18.1818
6.29196 20 -17.1717
6.29196 20 -16.1616
6.29196 20 -15.1515
6.29196 20 -14.1414
6.29196 20 -13.1313
6.29196 20 -12.1212
6.29196 20 -11.1111
6.29196 20 -10.101
6.29196 20 -9.09091
6.29196 20 -8.08081
6.29196 20 -7.07071
6.29196 20 -6.06061
6.29196 20 -5.05051
6.29196 20 -4.0404
6.29196 20 -3.0303
6.29196 20 -2.0202
6.29196 20 -1.0101
6.29196 20 0
5.28717 20 -100
5.28717 20 -98.9899
5.28717 20 -97.9798
5.28717 20 -96.9697
5.28717 20 -95.9596
5.28717 20 -94.9495
5.28717 20 -93.9394
5.28717 20 -92.9293
5.28717 20 -91.9192
5.28717 20 -90.9091
5.28717 20 -89.899
5.28717 20 -88.8889
5.28717 20 -87.8788
5.28717 20 -86.8687
5.28717 20 -85.8586
5.28717 20 -84.8485
5.28717 20 -83.8384
5.28717 20 -82.8283
5.28717 20 -81.8182
5.28717 20 -80.8081
5.28717 20 -79.798
5.28717 20 -78.7879
5.28717 20 -77.7778
5.28717 20 -76.7677
5.28717 20 -75.7576
5.28717 20 -74.7475
5.28717 20 -73.7374
5.28717 20 -72.7273
5.28717 20 -71.7172
5.28717 20 -70.7071
5.28717 20 -69.697
5.28717 20 -68.6869
5.28717 20 -67.6768
5.28717 20 -66.6667
5.28717 20 -65.6566
5.28717 20 -64.6465
5.28717 20 -63.6364
5.28717 20 -62.6263
5.28717 20 -61.6162
5.28717 20 -60.6061
5.28717 20 -59.596
5.28717 20 -58.5859
5.28717 20 -57.5758
5.28717 20 -56.5657
5.28717 20 -55.5556
5.28717 20 -54.5455
5.28717 20 -53.5354
5.28717 20 -52.5253
5.28717 20 -51.5152
5.28717 20 -50.5051
5.28717 20 -49.4949
5.28717 20 -48.4848
5.28717 20 -47.4747
5.28717 20 -46.4646
5.28717 20 -45.4545
5.28717 20 -44.4444
5.28717 20 -43.4343
5.28717 20 -42.4242
5.28717 20 -41.4141
5.28717 20 -40.404
5.28717 20 -39.3939
5.28717 20 -38.3838
5.28717 20 -37.3737
5.28717 20 -36.3636
5.28717 20 -35.3535
5.28717 20 -34.3434
5.28717 20 -33.3333
5.28717 20 -32.3232
5.28717 20 -31.3131
5.28717 20 -30.303
5.28717 20 -29.2929
5.28717 20 -28.2828
5.28717 20 -27.2727
5.28717 20 -26.2626
5.28717 20 -25.2525
5.28717 20 -24.2424
5.28717 20 -23.2323
5.28717 20 -22.2222
5.28717 20 -21.2121
5.28717 20 -20.202
5.28717 20 -19.1919
5.28717 20 -18.1818
5.28717 20 -17.1717
5.28717 20 -16.1616
5.28717 20 -15.1515
5.28717 20 -14.1414
5.28717 20 -13.1313
5.28717 20 -12.1212
5.28717 20 -11.1111
5.28717 20 -10.101
5.28717 20 -9.09091
5.28717 20 -8.08081
5.28717 20 -7.07071
5.28717 20 -6.06061
5.28717 20 -5.05051
5.28717 20 -4.0404
5.28717 20 -3.0303
5.28717 20 -2.0202
5.28717 20 -1.0101
5.28717 20 0
4.28238 20 -100
4.28238 20 -98.9899
4.28238 20 -97.9798
4.28238 20 -96.9697
4.28238 20 -95.9596
4.28238 20 -94.9495
4.28238 20 -93.9394
4.28238 20 -92.9293
4.28238 20 -91.9192
4.28238 20 -90.9091
4.28238 20 -89.899
4.28238 20 -88.8889
4.28238 20 -87.8788
4.28238 20 -86.8687
4.28238 20 -85.8586
4.28238 20 -84.8485
4.28238 20 -83.8384
4.28238 20 -82.8283
4.28238 20 -81.8182
4.28238 20 -80.8081
4.28238 20 -79.798
4.28238 20 -78.7879
4.28238 20 -77.7778
4.28238 20 -76.7677
4.28238 20 -75.7576
4.28238 20 -74.7475
4.28238 20 -73.7374
4.28238 20 -72.7273
4.28238 20 -71.7172
4.28238 20 -70.7071
4.28238 20 -69.697
4.28238 20 -68.6869
4.28238 20 -67.6768
4.28238 20 -66.6667
4.28238 20 -65.6566
4.28238 20 -64.6465
4.28238 20 -63.6364
4.28238 20 -62.6263
4.28238 20 -61.6162
4.28238 20 -60.6061
4.28238 20 -59.596
4.28238 20 -58.5859
4.28238 20 -57.5758
4.28238 20 -56.5657
4.28238 20 -55.5556
4.28238 20 -54.5455
4.28238 20 -53.5354
4.28238 20 -52.5253
4.28238 20 -51.5152
4.28238 20 -50.5051
4.28238 20 -49.4949
4.28238 20 -48.4848
4.28238 20 -47.4747
4.28238 20 -46.4646
4.28238 20 -45.4545
4.28238 20 -44.4444
4.28238 20 -43.4343
4.28238 20 -42.4242
4.28238 20 -41.4141
4.28238 20 -40.404
4.28238 20 -39.3939
4.28238 20 -38.3838
4.28238 20 -37.3737
4.28238 20 -36.3636
4.28238 20 -35.3535
4.28238 20 -34.3434
4.28238 20 -33.3333
4.28238 20 -32.3232
4.28238 20 -31.3131
4.28238 20 -30.303
4.28238 20 -29.2929
4.28238 20 -28.2828
4.28238 20 -27.2727
4.28238 20 -26.2626
4.28238 20 -25.2525
4.28238 20 -24.2424
4.28238 20 -23.2323
4.28238 20 -22.2222
4.28238 20 -21.2121
4.28238 20 -20.202
4.28238 20 -19.1919
4.28238 20 -18.1818
4.28238 20 -17.1717
4.28238 20 -16.1616
4.28238 20 -15.1515
4.28238 20 -14.1414
4.28238 20 -13.1313
4.28238 20 -12.1212
4.28238 20 -11.1111
4.28238 20 -10.101
4.28238 20 -9.09091
4.28238 20 -8.08081
4.28238 20 -7.07071
4.28238 20 -6.06061
4.28238 20 -5.05051
4.28238 20 -4.0404
4.28238 20 -3.0303
4.28238 20 -2.0202
4.28238 20 -1.0101
4.28238 20 0
3.2776 20 -100
3.2776 20 -98.9899
3.2776 20 -97.9798
3.2776 20 -96.9697
3.2776 20 -95.9596
3.2776 20 -94.9495
3.2776 20 -93.9394
3.2776 20 -92.9293
3.2776 20 -91.9192
3.2776 20 -90.9091
3.2776 20 -89.899
3.2776 20 -88.8889
3.2776 20 -87.8788
3.2776 20 -86.8687
3.2776 20 -85.8586
3.2776 20 -84.8485
3.2776 20 -83.8384
3.2776 20 -82.8283
3.2776 20 -81.8182
3.2776 20 -80.8081
3.2776 20 -79.798
3.2776 20 -78.7879
3.2776 20 -77.7778
3.2776 20 -76.7677
3.2776 20 -75.7576
3.2776 20 -74.7475
3.2776 20 -73.7374
3.2776 20 -72.7273
3.2776 20 -71.7172
3.2776 20 -70.7071
3.2776 20 -69.697
3.2776 20 -68.6869
3.2776 20 -67.6768
3.2776 20 -66.6667
3.2776 20 -65.6566
3.2776 20 -64.6465
3.2776 20 -63.6364
3.2776 20 -62.6263
3.2776 20 -61.6162
3.2776 20 -60.6061
3.2776 20 -59.596
3.2776 20 -58.5859
3.2776 20 -57.5758
3.2776 20 -56.5657
3.2776 20 -55.5556
3.2776 20 -54.5455
3.2776 20 -53.5354
3.2776 20 -52.5253
3.2776 20 -51.5152
3.2776 20 -50.5051
3.2776 20 -49.4949
3.2776 20 -48.4848
3.2776 20 -47.4747
3.2776 20 -46.4646
3.2776 20 -45.4545
3.2776 20 -44.4444
3.2776 20 -43.4343
3.2776 20 -42.4242
3.2776 20 -41.4141
3.2776 20 -40.404
3.2776 20 -39.3939
3.2776 20 -38.3838
3.2776 20 -37.3737
3.2776 20 -36.3636
3.2776 20 -35.3535
3.2776 20 -34.3434
3.2776 20 -33.3333
3.2776 20 -32.3232
3.2776 20 -31.3131
3.2776 20 -30.303
3.2776 20 -29.2929
3.2776 20 -28.2828
3.2776 20 -27.2727
3.2776 20 -26.2626
3.2776 20 -25.2525
3.2776 20 -24.2424
3.2776 20 -23.2323
3.2776 20 -22.2222
3.2776 20 -21.2121
3.2776 20 -20.202
3.2776 20 -19.1919
3.2776 20 -18.1818
3.2776 20 -17.1717
3.2776 20 -16.1616
3.2776 20 -15.1515
3.2776 20 -14.1414
3.2776 20 -13.1313
3.2776 20 -12.1212
3.2776 20 -11.1111
3.2776 20 -10.101
3.2776 20 -9.09091
3.2776 20 -8.08081
3.2776 20 -7.07071
3.2776 20 -6.06061
3.2776 20 -5.05051
3.2776 20 -4.0404
3.2776 20 -3.0303
3.2776 20 -2.0202
3.2776 20 -1.0101
3.2776 20 0
2.27281 20 -100
2.27281 20 -98.9899
2.27281 20 -97.9798
2.27281 20 -96.9697
2.27281 20 -95.9596
2.27281 20 -94.9495
2.27281 20 -93.9394
2.27281 20 -92.9293
2.27281 20 -91.9192
2.27281 20 -90.9091
2.27281 20 -89.899
2.27281 20 -88.8889
2.27281 20 -87.8788
2.27281 20 -86.8687
2.27281 20 -85.8586
2.27281 20 -84.8485
2.27281 20 -83.8384
2.27281 20 -82.8283
2.27281 20 -81.8182
2.27281 20 -80.8081
2.27281 20 -79.798
2.27281 20 -78.7879
2.27281 20 -77.7778
2.27281 20 -76.7677
2.27281 20 -75.7576
2.27281 20 -74.7475
2.27281 20 -73.7374
2.27281 20 -72.7273
2.27281 20 -71.7172
2.27281 20 -70.7071
2.27281 20 -69.697
2.27281 20 -68.6869
2.27281 20 -67.6768
2.27281 20 -66.6667
2.27281 20 -65.6566
2.27281 20 -64.6465
2.27281 20 -63.6364
2.27281 20 -62.6263
2.27281 20 -61.6162
2.27281 20 -60.6061
2.27281 20 -59.596
2.27281 20 -58.5859
2.27281 20 -57.5758
2.27281 20 -56.5657
2.27281 20 -55.5556
2.27281 20 -54.5455
2.27281 20 -53.5354
2.27281 20 -52.5253
2.27281 20 -51.5152
2.27281 20 -50.5051
2.27281 20 -49.4949
2.27281 20 -48.4848
2.27281 20 -47.4747
2.27281 20 -46.4646
2.27281 20 -45.4545
2.27281 20 -44.4444
2.27281 20 -43.4343
2.27281 20 -42.4242
2.27281 20 -41.4141
2.27281 20 -40.404
2.27281 20 -39.3939
2.27281 20 -38.3838
2.27281 20 -37.3737
2.27281 20 -36.3636
2.27281 20 -35.3535
2.27281 20 -34.3434
2.27281 20 -33.3333
2.27281 20 -32.3232
2.27281 20 -31.3131
2.27281 20 -30.303
2.27281 20 -29.2929
2.27281 20 -28.2828
2.27281 20 -27.2727
2.27281 20 -26.2626
2.27281 20 -25.2525
2.27281 20 -24.2424
2.27281 20 -23.2323
2.27281 20 -22.2222
2.27281 20 -21.2121
2.27281 20 -20.202
2.27281 20 -19.1919
2.27281 20 -18.1818
2.27281 20 -17.1717
2.27281 20 -16.1616
2.27281 20 -15.1515
2.27281 20 -14.1414
2.27281 20 -13.1313
2.27281 20 -12.1212
2.27281 20 -11.1111
2.27281 20 -10.101
2.27281 20 -9.09091
2.27281 20 -8.08081
2.27281 20 -7.07071
2.27281 20 -6.06061
2.27281 20 -5.05051
2.27281 20 -4.0404
2.27281 20 -3.0303
2.27281 20 -2.0202
2.27281 20 -1.0101
2.27281 20 0
1.26803 20 -100
1.26803 20 -98.9899
1.26803 20 -97.9798
1.26803 20 -96.9697
1.26803 20 -95.9596
1.26803 20 -94.9495
1.26803 20 -93.9394
1.26803 20 -92.9293
1.26803 20 -91.9192
1.26803 20 -90.9091
1.26803 20 -89.899
1.26803 20 -88.8889
1.26803 20 -87.8788
1.26803 20 -86.8687
1.26803 20 -85.8586
1.26803 20 -84.8485
1.26803 20 -83.8384
1.26803 20 -82.8283
1.26803 20 -81.8182
1.26803 20 -80.8081
1.26803 20 -79.798
1.26803 20 -78.7879
1.26803 20 -77.7778
1.26803 20 -76.7677
1.26803 20 -75.7576
1.26803 20 -74.7475
1.26803 20 -73.7374
1.26803 20 -72.7273
1.26803 20 -71.7172
1.26803 20 -70.7071
1.26803 20 -69.697
1.26803 20 -68.6869
1.26803 20 -67.6768
1.26803 20 -66.6667
1.26803 20 -65.6566
1.26803 20 -64.6465
1.26803 20 -63.6364
1.26803 20 -62.6263
1.26803 20 -61.6162
1.26803 20 -60.6061
1.26803 20 -59.596
1.26803 20 -58.5859
1.26803 20 -57.5758
1.26803 20 -56.5657
1.26803 20 -55.5556
1.26803 20 -54.5455
1.26803 20 -53.5354
1.26803 20 -52.5253
1.26803 20 -51.5152
1.26803 20 -50.5051
1.26803 20 -49.4949
1.26803 20 -48.4848
1.26803 20 -47.4747
1.26803 20 -46.4646
1.26803 20 -45.4545
1.26803 20 -44.4444
1.26803 20 -43.4343
1.26803 20 -42.4242
1.26803 20 -41.4141
1.26803 20 -40.404
1.26803 20 -39.3939
1.26803 20 -38.3838
1.26803 20 -37.3737
1.26803 20 -36.3636
1.26803 20 -35.3535
1.26803 20 -34.3434
1.26803 20 -33.3333
1.26803 20 -32.3232
1.26803 20 -31.3131
1.26803 20 -30.303
1.26803 20 -29.2929
1.26803 20 -28.2828
1.26803 20 -27.2727
1.26803 20 -26.2626
1.26803 20 -25.2525
1.26803 20 -24.2424
1.26803 20 -23.2323
1.26803 20 -22.2222
1.26803 20 -21.2121
1.26803 20 -20.202
1.26803 20 -19.1919
1.26803 20 -18.1818
1.26803 20 -17.1717
1.26803 20 -16.1616
1.26803 20 -15.1515
1.26803 20 -14.1414
1.26803 20 -13.1313
1.26803 20 -12.1212
1.26803 20 -11.1111
1.26803 20 -10.101
1.26803 20 -9.09091
1.26803 20 -8.08081
1.26803 20 -7.07071
1.26803 20 -6.06061
1.26803 20 -5.05051
1.26803 20 -4.0404
1.26803 20 -3.0303
1.26803 20 -2.0202
1.26803 20 -1.0101
1.26803 20 0
0.263239 20 -100
0.263239 20 -98.9899
0.263239 20 -97.9798
0.263239 20 -96.9697
0.263239 20 -95.9596
0.263239 20 -94.9495
0.263239 20 -93.9394
0.263239 20 -92.9293
0.263239 20 -91.9192
0.263239 20 -90.9091
0.263239 20 -89.899
0.263239 20 -88.8889
0.263239 20 -87.8788
0.263239 20 -86.8687
0.263239 20 -85.8586
0.263239 20 -84.8485
0.263239 20 -83.8384
0.263239 20 -82.8283
0.263239 20 -81.8182
0.263239 20 -80.8081
0.263239 20 -79.798
0.263239 20 -78.7879
0.263239 20 -77.7778
0.263239 20 -76.7677
0.263239 20 -75.7576
0.263239 20 -74.7475
0.263239 20 -73.7374
0.263239 20 -72.7273
0.263239 20 -71.7172
0.263239 20 -70.7071
0.263239 20 -69.697
0.263239 20 -68.6869
0.263239 20 -67.6768
0.263239 20 -66.6667
0.263239 20 -65.6566
0.263239 20 -64.6465
0.263239 20 -63.6364
0.263239 20 -62.6263
0.263239 20 -61.6162
0.263239 20 -60.6061
0.263239 20 -59.596
0.263239 20 -58.5859
0.263239 20 -57.5758
0.263239 20 -56.5657
0.263239 20 -55.5556
0.263239 20 -54.5455
0.263239 20 -53.5354
0.263239 20 -52.5253
0.263239 20 -51.5152
0.263239 20 -50.5051
0.263239 20 -49.4949
0.263239 20 -48.4848
0.263239 20 -47.4747
0.263239 20 -46.4646
0.263239 20 -45.4545
0.263239 20 -44.4444
0.263239 20 -43.4343
0.263239 20 -42.4242
0.263239 20 -41.4141
0.263239 20 -40.404
0.263239 20 -39.3939
0.263239 20 -38.3838
0.263239 20 -37.3737
0.263239 20 -36.3636
0.263239 20 -35.3535
0.263239 20 -34.3434
0.263239 20 -33.3333
0.263239 20 -32.3232
0.263239 20 -31.3131
0.263239 20 -30.303
0.263239 20 -29.2929
0.263239 20 -28.2828
0.263239 20 -27.2727
0.263239 20 -26.2626
0.263239 20 -25.2525
0.263239 20 -24.2424
0.263239 20 -23.2323
0.263239 20 -22.2222
0.263239 20 -21.2121
0.263239 20 -20.202
0.263239 20 -19.1919
0.263239 20 -18.1818
0.263239 20 -17.1717
0.263239 20 -16.1616
0.263239 20 -15.1515
0.263239 20 -14.1414
0.263239 20 -13.1313
0.263239 20 -12.1212
0.263239 20 -11.1111
0.263239 20 -10.101
0.263239 20 -9.09091
0.263239 20 -8.08081
0.263239 20 -7.07071
0.263239 20 -6.06061
0.263239 20 -5.05051
0.263239 20 -4.0404
0.263239 20 -3.0303
0.263239 20 -2.0202
0.263239 20 -1.0101
0.263239 20 0
-0.741547 20 -100
-0.741547 20 -98.9899
-0.741547 20 -97.9798
-0.741547 20 -96.9697
-0.741547 20 -95.9596
-0.741547 20 -94.9495
-0.741547 20 -93.9394
-0.741547 20 -92.9293
-0.741547 20 -91.9192
-0.741547 20 -90.9091
-0.741547 20 -89.899
-0.741547 20 -88.8889
-0.741547 20 -87.8788
-0.741547 20 -86.8687
-0.741547 20 -85.8586
-0.741547 20 -84.8485
-0.741547 20 -83.8384
-0.741547 20 -82.8283
-0.741547 20 -81.8182
-0.741547 20 -80.8081
-0.741547 20 -79.798
-0.741547 20 -78.7879
-0.741547 20 -77.7778
-0.741547 20 -76.7677
-0.741547 20 -75.7576
-0.741547 20 -74.7475
-0.741547 20 -73.7374
-0.741547 20 -72.7273
-0.741547 20 -71.7172
-0.741547 20 -70.7071
-0.741547 20 -69.697
-0.741547 20 -68.6869
-0.741547 20 -67.6768
-0.741547 20 -66.6667
-0.741547 20 -65.6566
-0.741547 20 -64.6465
-0.741547 20 -63.6364
-0.741547 20 -62.6263
-0.741547 20 -61.6162
-0.741547 20 -60.6061
-0.741547 20 -59.596
-0.741547 20 -58.5859
-0.741547 20 -57.5758
-0.741547 20 -56.5657
-0.741547 20 -55.5556
-0.741547 20 -54.5455
-0.741547 20 -53.5354
-0.741547 20 -52.5253
-0.741547 20 -51.5152
-0.741547 20 -50.5051
-0.741547 20 -49.4949
-0.741547 20 -48.4848
-0.741547 20 -47.4747
-0.741547 20 -46.4646
-0.741547 20 -45.4545
-0.741547 20 -44.4444
-0.741547 20 -43.4343
-0.741547 20 -42.4242
-0.741547 20 -41.4141
-0.741547 20 -40.404
-0.741547 20 -39.3939
-0.741547 20 -38.3838
-0.741547 20 -37.3737
-0.741547 20 -36.3636
-0.741547 20 -35.3535
-0.741547 20 -34.3434
-0.741547 20 -33.3333
-0.741547 20 -32.3232
-0.741547 20 -31.3131
-0.741547 20 -30.303
-0.741547 20 -29.2929
-0.741547 20 -28.2828
-0.741547 20 -27.2727
-0.741547 20 -26.2626
-0.741547 20 -25.2525
-0.741547 20 -24.2424
-0.741547 20 -23.2323
-0.741547 20 -22.2222
-0.741547 20 -21.2121
-0.741547 20 -20.202
-0.741547 20 -19.1919
-0.741547 20 -18.1818
-0.741547 20 -17.1717
-0.741547 20 -16.1616
-0.741547 20 -15.1515
-0.741547 20 -14.1414
-0.741547 20 -13.1313
-0.741547 20 -12.1212
-0.741547 20 -11.1111
-0.741547 20 -10.101
-0.741547 20 -9.09091
-0.741547 20 -8.08081
-0.741547 20 -7.07071
-0.741547 20 -6.06061
-0.741547 20 -5.05051
-0.741547 20 -4.0404
-0.741547 20 -3.0303
-0.741547 20 -2.0202
-0.741547 20 -1.0101
-0.741547 20 0
-1.74633 20 -100
-1.74633 20 -98.9899
-1.74633 20 -97.9798
-1.74633 20 -96.9697
-1.74633 20 -95.9596
-1.74633 20 -94.9495
-1.74633 20 -93.9394
-1.74633 20 -92.9293
-1.74633 20 -91.9192
-1.74633 20 -90.9091
-1.74633 20 -89.899
-1.74633 20 -88.8889
-1.74633 20 -87.8788
-1.74633 20 -86.8687
-1.74633 20 -85.8586
-1.74633 20 -84.8485
-1.74633 20 -83.8384
-1.74633 20 -82.8283
-1.74633 20 -81.8182
-1.74633 20 -80.8081
-1.74633 20 -79.798
-1.74633 20 -78.7879
-1.74633 20 -77.7778
-1.74633 20 -76.7677
-1.74633 20 -75.7576
-1.74633 20 -74.7475
-1.74633 20 -73.7374
-1.74633 20 -72.7273
-1.74633 20 -71.7172
-1.74633 20 -70.7071
-1.74633 20 -69.697
-1.74633 20 -68.6869
-1.74633 20 -67.6768
-1.74633 20 -66.6667
-1.74633 20 -65.6566
-1.74633 20 -64.6465
-1.74633 20 -63.6364
-1.74633 20 -62.6263
-1.74633 20 -61.6162
-1.74633 20 -60.6061
-1.74633 20 -59.596
-1.74633 20 -58.5859
-1.74633 20 -57.5758
-1.74633 20 -56.5657
-1.74633 20 -55.5556
-1.74633 20 -54.5455
-1.74633 20 -53.5354
-1.74633 20 -52.5253
-1.74633 20 -51.5152
-1.74633 20 -50.5051
-1.74633 20 -49.4949
-1.74633 20 -48.4848
-1.74633 20 -47.4747
-1.74633 20 -46.4646
-1.74633 20 -45.4545
-1.74633 20 -44.4444
-1.74633 20 -43.4343
-1.74633 20 -42.4242
-1.74633 20 -41.4141
-1.74633 20 -40.404
-1.74633 20 -39.3939
-1.74633 20 -38.3838
-1.74633 20 -37.3737
-1.74633 20 -36.3636
-1.74633 20 -35.3535
-1.74633 20 -34.3434
-1.74633 20 -33.3333
-1.74633 20 -32.3232
-1.74633 20 -31.3131
-1.74633 20 -30.303
-1.74633 20 -29.2929
-1.74633 20 -28.2828
-1.74633 20 -27.2727
-1.74633 20 -26.2626
-1.74633 20 -25.2525
-1.74633 20 -24.2424
-1.74633 20 -23.2323
-1.74633 20 -22.2222
-1.74633 20 -21.2121
-1.74633 20 -20.202
-1.74633 20 -19.1919
-1.74633 20 -18.1818
-1.74633 20 -17.1717
-1.74633 20 -16.1616
-1.74633 20 -15.1515
-1.74633 20 -14.1414
-1.74633 20 -13.1313
-1.74633 20 -12.1212
-1.74633 20 -11.1111
-1.74633 20 -10.101
-1.74633 20 -9.09091
-1.74633 20 -8.08081
-1.74633 20 -7.07071
-1.74633 20 -6.06061
-1.74633 20 -5.05051
-1.74633 20 -4.0404
-1.74633 20 -3.0303
-1.74633 20 -2.0202
-1.74633 20 -1.0101
-1.74633 20 0
-2.75112 20 -100
-2.75112 20 -98.9899
-2.75112 20 -97.9798
-2.75112 20 -96.9697
-2.75112 20 -95.9596
-2.75112 20 -94.9495
-2.75112 20 -93.9394
-2.75112 20 -92.9293
-2.75112 20 -91.9192
-2.75112 20 -90.9091
-2.75112 20 -89.899
-2.75112 20 -88.8889
-2.75112 20 -87.8788
-2.75112 20 -86.8687
-2.75112 20 -85.8586
-2.75112 20 -84.8485
-2.75112 20 -83.8384
-2.75112 20 -82.8283
-2.75112 20 -81.8182
-2.75112 20 -80.8081
-2.75112 20 -79.798
-2.75112 20 -78.7879
-2.75112 20 -77.7778
-2.75112 20 -76.7677
-2.75112 20 -75.7576
-2.75112 20 -74.7475
-2.75112 20 -73.7374
-2.75112 20 -72.7273
-2.75112 20 -71.7172
-2.75112 20 -70.7071
-2.75112 20 -69.697
-2.75112 20 -68.6869
-2.75112 20 -67.6768
-2.75112 20 -66.6667
-2.75112 20 -65.6566
-2.75112 20 -64.6465
-2.75112 20 -63.6364
-2.75112 20 -62.6263
-2.75112 20 -61.6162
-2.75112 20 -60.6061
-2.75112 20 -59.596
-2.75112 20 -58.5859
-2.75112 20 -57.5758
-2.75112 20 -56.5657
-2.75112 20 -55.5556
-2.75112 20 -54.5455
-2.75112 20 -53.5354
-2.75112 20 -52.5253
-2.75112 20 -51.5152
-2.75112 20 -50.5051
-2.75112 20 -49.4949
-2.75112 20 -48.4848
-2.75112 20 -47.4747
-2.75112 20 -46.4646
-2.75112 20 -45.4545
-2.75112 20 -44.4444
-2.75112 20 -43.4343
-2.75112 20 -42.4242
-2.75112 20 -41.4141
-2.75112 20 -40.404
-2.75112 20 -39.3939
-2.75112 20 -38.3838
-2.75112 20 -37.3737
-2.75112 20 -36.3636
-2.75112 20 -35.3535
-2.75112 20 -34.3434
-2.75112 20 -33.3333
-2.75112 20 -32.3232
-2.75112 20 -31.3131
-2.75112 20 -30.303
-2.75112 20 -29.2929
-2.75112 20 -28.2828
-2.75112 20 -27.2727
-2.75112 20 -26.2626
-2.75112 20 -25.2525
-2.75112 20 -24.2424
-2.75112 20 -23.2323
-2.75112 20 -22.2222
-2.75112 20 -21.2121
-2.75112 20 -20.202
-2.75112 20 -19.1919
-2.75112 20 -18.1818
-2.75112 20 -17.1717
-2.75112 20 -16.1616
-2.75112 20 -15.1515
-2.75112 20 -14.1414
-2.75112 20 -13.1313
-2.75112 20 -12.1212
-2.75112 20 -11.1111
-2.75112 20 -10.101
-2.75112 20 -9.09091
-2.75112 20 -8.08081
-2.75112 20 -7.07071
-2.75112 20 -6.06061
-2.75112 20 -5.05051
-2.75112 20 -4.0404
-2.75112 20 -3.0303
-2.75112 20 -2.0202
-2.75112 20 -1.0101
-2.75112 20 0
-3.75591 20 -100
-3.75591 20 -98.9899
-3.75591 20 -97.9798
-3.75591 20 -96.9697
-3.75591 20 -95.9596
-3.75591 20 -94.9495
-3.75591 20 -93.9394
-3.75591 20 -92.9293
-3.75591 20 -91.9192
-3.75591 20 -90.9091
-3.75591 20 -89.899
-3.75591 20 -88.8889
-3.75591 20 -87.8788
-3.75591 20 -86.8687
-3.75591 20 -85.8586
-3.75591 20 -84.8485
-3.75591 20 -83.8384
-3.75591 20 -82.8283
-3.75591 20 -81.8182
-3.75591 20 -80.8081
-3.75591 20 -79.798
-3.75591 20 -78.7879
-3.75591 20 -77.7778
-3.75591 20 -76.7677
-3.75591 20 -75.7576
-3.75591 20 -74.7475
-3.75591 20 -73.7374
-3.75591 20 -72.7273
-3.75591 20 -71.7172
-3.75591 20 -70.7071
-3.75591 20 -69.697
-3.75591 20 -68.6869
-3.75591 20 -67.6768
-3.75591 20 -66.6667
-3.75591 20 -65.6566
-3.75591 20 -64.6465
-3.75591 20 -63.6364
-3.75591 20 -62.6263
-3.75591 20 -61.6162
-3.75591 20 -60.6061
-3.75591 20 -59.596
-3.75591 20 -58.5859
-3.75591 20 -57.5758
-3.75591 20 -56.5657
-3.75591 20 -55.5556
-3.75591 20 -54.5455
-3.75591 20 -53.5354
-3.75591 20 -52.5253
-3.75591 20 -51.5152
-3.75591 20 -50.5051
-3.75591 20 -49.4949
-3.75591 20 -48.4848
-3.75591 20 -47.4747
-3.75591 20 -46.4646
-3.75591 20 -45.4545
-3.75591 20 -44.4444
-3.75591 20 -43.4343
-3.75591 20 -42.4242
-3.75591 20 -41.4141
-3.75591 20 -40.404
-3.75591 20 -39.3939
-3.75591 20 -38.3838
-3.75591 20 -37.3737
-3.75591 20 -36.3636
-3.75591 20 -35.3535
-3.75591 20 -34.3434
-3.75591 20 -33.3333
-3.75591 20 -32.3232
-3.75591 20 -31.3131
-3.75591 20 -30.303
-3.75591 20 -29.2929
-3.75591 20 -28.2828
-3.75591 20 -27.2727
-3.75591 20 -26.2626
-3.75591 20 -25.2525
-3.75591 20 -24.2424
-3.75591 20 -23.2323
-3.75591 20 -22.2222
-3.75591 20 -21.2121
-3.75591 20 -20.202
-3.75591 20 -19.1919
-3.75591 20 -18.1818
-3.75591 20 -17.1717
-3.75591 20 -16.1616
-3.75591 20 -15.1515
-3.75591 20 -14.1414
-3.75591 20 -13.1313
-3.75591 20 -12.1212
-3.75591 20 -11.1111
-3.75591 20 -10.101
-3.75591 20 -9.09091
-3.75591 20 -8.08081
-3.75591 20 -7.07071
-3.75591 20 -6.06061
-3.75591 20 -5.05051
-3.75591 20 -4.0404
-3.75591 20 -3.0303
-3.75591 20 -2.0202
-3.75591 20 -1.0101
-3.75591 20 0
-4.76069 20 -100
-4.76069 20 -98.9899
-4.76069 20 -97.9798
-4.76069 20 -96.9697
-4.76069 20 -95.9596
-4.76069 20 -94.9495
-4.76069 20 -93.9394
-4.76069 20 -92.9293
-4.76069 20 -91.9192
-4.76069 20 -90.9091
-4.76069 20 -89.899
-4.76069 20 -88.8889
-4.76069 20 -87.8788
-4.76069 20 -86.8687
-4.76069 20 -85.8586
-4.76069 20 -84.8485
-4.76069 20 -83.8384
-4.76069 20 -82.8283
-4.76069 20 -81.8182
-4.76069 20 -80.8081
-4.76069 20 -79.798
-4.76069 20 -78.7879
-4.76069 20 -77.7778
-4.76069 20 -76.7677
-4.76069 20 -75.7576
-4.76069 20 -74.7475
-4.76069 20 -73.7374
-4.76069 20 -72.7273
-4.76069 20 -71.7172
-4.76069 20 -70.7071
-4.76069 20 -69.697
-4.76069 20 -68.6869
-4.76069 20 -67.6768
-4.76069 20 -66.6667
-4.76069 20 -65.6566
-4.76069 20 -64.6465
-4.76069 20 -63.6364
-4.76069 20 -62.6263
-4.76069 20 -61.6162
-4.76069 20 -60.6061
-4.76069 20 -59.596
-4.76069 20 -58.5859
-4.76069 20 -57.5758
-4.76069 20 -56.5657
-4.76069 20 -55.5556
-4.76069 20 -54.5455
-4.76069 20 -53.5354
-4.76069 20 -52.5253
-4.76069 20 -51.5152
-4.76069 20 -50.5051
-4.76069 20 -49.4949
-4.76069 20 -48.4848
-4.76069 20 -47.4747
-4.76069 20 -46.4646
-4.76069 20 -45.4545
-4.76069 20 -44.4444
-4.76069 20 -43.4343
-4.76069 20 -42.4242
-4.76069 20 -41.4141
-4.76069 20 -40.404
-4.76069 20 -39.3939
-4.76069 20 -38.3838
-4.76069 20 -37.3737
-4.76069 20 -36.3636
-4.76069 20 -35.3535
-4.76069 20 -34.3434
-4.76069 20 -33.3333
-4.76069 20 -32.3232
-4.76069 20 -31.3131
-4.76069 20 -30.303
-4.76069 20 -29.2929
-4.76069 20 -28.2828
-4.76069 20 -27.2727
-4.76069 20 -26.2626
-4.76069 20 -25.2525
-4.76069 20 -24.2424
-4.76069 20 -23.2323
-4.76069 20 -22.2222
-4.76069 20 -21.2121
-4.76069 20 -20.202
-4.76069 20 -19.1919
-4.76069 20 -18.1818
-4.76069 20 -17.1717
-4.76069 20 -16.1616
-4.76069 20 -15.1515
-4.76069 20 -14.1414
-4.76069 20 -13.1313
-4.76069 20 -12.1212
-4.76069 20 -11.1111
-4.76069 20 -10.101
-4.76069 20 -9.09091
-4.76069 20 -8.08081
-4.76069 20 -7.07071
-4.76069 20 -6.06061
-4.76069 20 -5.05051
-4.76069 20 -4.0404
-4.76069 20 -3.0303
-4.76069 20 -2.0202
-4.76069 20 -1.0101
-4.76069 20 0
-5.76548 20 -100
-5.76548 20 -98.9899
-5.76548 20 -97.9798
-5.76548 20 -96.9697
-5.76548 20 -95.9596
-5.76548 20 -94.9495
-5.76548 20 -93.9394
-5.76548 20 -92.9293
-5.76548 20 -91.9192
-5.76548 20 -90.9091
-5.76548 20 -89.899
-5.76548 20 -88.8889
-5.76548 20 -87.8788
-5.76548 20 -86.8687
-5.76548 20 -85.8586
-5.76548 20 -84.8485
-5.76548 20 -83.8384
-5.76548 20 -82.8283
-5.76548 20 -81.8182
-5.76548 20 -80.8081
-5.76548 20 -79.798
-5.76548 20 -78.7879
-5.76548 20 -77.7778
-5.76548 20 -76.7677
-5.76548 20 -75.7576
-5.76548 20 -74.7475
-5.76548 20 -73.7374
-5.76548 20 -72.7273
-5.76548 20 -71.7172
-5.76548 20 -70.7071
-5.76548 20 -69.697
-5.76548 20 -68.6869
-5.76548 20 -67.6768
-5.76548 20 -66.6667
-5.76548 20 -65.6566
-5.76548 20 -64.6465
-5.76548 20 -63.6364
-5.76548 20 -62.6263
-5.76548 20 -61.6162
-5.76548 20 -60.6061
-5.76548 20 -59.596
-5.76548 20 -58.5859
-5.76548 20 -57.5758
-5.76548 20 -56.5657
-5.76548 20 -55.5556
-5.76548 20 -54.5455
-5.76548 20 -53.5354
-5.76548 20 -52.5253
-5.76548 20 -51.5152
-5.76548 20 -50.5051
-5.76548 20 -49.4949
-5.76548 20 -48.4848
-5.76548 20 -47.4747
-5.76548 20 -46.4646
-5.76548 20 -45.4545
-5.76548 20 -44.4444
-5.76548 20 -43.4343
-5.76548 20 -42.4242
-5.76548 20 -41.4141
-5.76548 20 -40.404
-5.76548 20 -39.3939
-5.76548 20 -38.3838
-5.76548 20 -37.3737
-5.76548 20 -36.3636
-5.76548 20 -35.3535
-5.76548 20 -34.3434
-5.76548 20 -33.3333
-5.76548 20 -32.3232
-5.76548 20 -31.3131
-5.76548 20 -30.303
-5.76548 20 -29.2929
-5.76548 20 -28.2828
-5.76548 20 -27.2727
-5.76548 20 -26.2626
-5.76548 20 -25.2525
-5.76548 20 -24.2424
-5.76548 20 -23.2323
-5.76548 20 -22.2222
-5.76548 20 -21.2121
-5.76548 20 -20.202
-5.76548 20 -19.1919
-5.76548 20 -18.1818
-5.76548 20 -17.1717
-5.76548 20 -16.1616
-5.76548 20 -15.1515
-5.76548 20 -14.1414
-5.76548 20 -13.1313
-5.76548 20 -12.1212
-5.76548 20 -11.1111
-5.76548 20 -10.101
-5.76548 20 -9.09091
-5.76548 20 -8.08081
-5.76548 20 -7.07071
-5.76548 20 -6.06061
-5.76548 20 -5.05051
-5.76548 20 -4.0404
-5.76548 20 -3.0303
-5.76548 20 -2.0202
-5.76548 20 -1.0101
-5.76548 20 0
-6.77026 20 -100
-6.77026 20 -98.9899
-6.77026 20 -97.9798
-6.77026 20 -96.9697
-6.77026 20 -95.9596
-6.77026 20 -94.9495
-6.77026 20 -93.9394
-6.77026 20 -92.9293
-6.77026 20 -91.9192
-6.77026 20 -90.9091
-6.77026 20 -89.899
-6.77026 20 -88.8889
-6.77026 20 -87.8788
-6.77026 20 -86.8687
-6.77026 20 -85.8586
-6.77026 20 -84.8485
-6.77026 20 -83.8384
-6.77026 20 -82.8283
-6.77026 20 -81.8182
-6.77026 20 -80.8081
-6.77026 20 -79.798
-6.77026 20 -78.7879
-6.77026 20 -77.7778
-6.77026 20 -76.7677
-6.77026 20 -75.7576
-6.77026 20 -74.7475
-6.77026 20 -73.7374
-6.77026 20 -72.7273
-6.77026 20 -71.7172
-6.77026 20 -70.7071
-6.77026 20 -69.697
-6.77026 20 -68.6869
-6.77026 20 -67.6768
-6.77026 20 -66.6667
-6.77026 20 -65.6566
-6.77026 20 -64.6465
-6.77026 20 -63.6364
-6.77026 20 -62.6263
-6.77026 20 -61.6162
-6.77026 20 -60.6061
-6.77026 20 -59.596
-6.77026 20 -58.5859
-6.77026 20 -57.5758
-6.77026 20 -56.5657
-6.77026 20 -55.5556
-6.77026 20 -54.5455
-6.77026 20 -53.5354
-6.77026 20 -52.5253
-6.77026 20 -51.5152
-6.77026 20 -50.5051
-6.77026 20 -49.4949
-6.77026 20 -48.4848
-6.77026 20 -47.4747
-6.77026 20 -46.4646
-6.77026 20 -45.4545
-6.77026 20 -44.4444
-6.77026 20 -43.4343
-6.77026 20 -42.4242
-6.77026 20 -41.4141
-6.77026 20 -40.404
-6.77026 20 -39.3939
-6.77026 20 -38.3838
-6.77026 20 -37.3737
-6.77026 20 -36.3636
-6.77026 20 -35.3535
-6.77026 20 -34.3434
-6.77026 20 -33.3333
-6.77026 20 -32.3232
-6.77026 20 -31.3131
-6.77026 20 -30.303
-6.77026 20 -29.2929
-6.77026 20 -28.2828
-6.77026 20 -27.2727
-6.77026 20 -26.2626
-6.77026 20 -25.2525
-6.77026 20 -24.2424
-6.77026 20 -23.2323
-6.77026 20 -22.2222
-6.77026 20 -21.2121
-6.77026 20 -20.202
-6.77026 20 -19.1919
-6.77026 20 -18.1818
-6.77026 20 -17.1717
-6.77026 20 -16.1616
-6.77026 20 -15.1515
-6.77026 20 -14.1414
-6.77026 20 -13.1313
-6.77026 20 -12.1212
-6.77026 20 -11.1111
-6.77026 20 -10.101
-6.77026 20 -9.09091
-6.77026 20 -8.08081
-6.77026 20 -7.07071
-6.77026 20 -6.06061
-6.77026 20 -5.05051
-6.77026 20 -4.0404
-6.77026 20 -3.0303
-6.77026 20 -2.0202
-6.77026 20 -1.0101
-6.77026 20 0
-7.77505 20 -100
-7.77505 20 -98.9899
-7.77505 20 -97.9798
-7.77505 20 -96.9697
-7.77505 20 -95.9596
-7.77505 20 -94.9495
-7.77505 20 -93.9394
-7.77505 20 -92.9293
-7.77505 20 -91.9192
-7.77505 20 -90.9091
-7.77505 20 -89.899
-7.77505 20 -88.8889
-7.77505 20 -87.8788
-7.77505 20 -86.8687
-7.77505 20 -85.8586
-7.77505 20 -84.8485
-7.77505 20 -83.8384
-7.77505 20 -82.8283
-7.77505 20 -81.8182
-7.77505 20 -80.8081
-7.77505 20 -79.798
-7.77505 20 -78.7879
-7.77505 20 -77.7778
-7.77505 20 -76.7677
-7.77505 20 -75.7576
-7.77505 20 -74.7475
-7.77505 20 -73.7374
-7.77505 20 -72.7273
-7.77505 20 -71.7172
-7.77505 20 -70.7071
-7.77505 20 -69.697
-7.77505 20 -68.6869
-7.77505 20 -67.6768
-7.77505 20 -66.6667
-7.77505 20 -65.6566
-7.77505 20 -64.6465
-7.77505 20 -63.6364
-7.77505 20 -62.6263
-7.77505 20 -61.6162
-7.77505 20 -60.6061
-7.77505 20 -59.596
-7.77505 20 -58.5859
-7.77505 20 -57.5758
-7.77505 20 -56.5657
-7.77505 20 -55.5556
-7.77505 20 -54.5455
-7.77505 20 -53.5354
-7.77505 20 -52.5253
-7.77505 20 -51.5152
-7.77505 20 -50.5051
-7.77505 20 -49.4949
-7.77505 20 -48.4848
-7.77505 20 -47.4747
-7.77505 20 -46.4646
-7.77505 20 -45.4545
-7.77505 20 -44.4444
-7.77505 20 -43.4343
-7.77505 20 -42.4242
-7.77505 20 -41.4141
-7.77505 20 -40.404
-7.77505 20 -39.3939
-7.77505 20 -38.3838
-7.77505 20 -37.3737
-7.77505 20 -36.3636
-7.77505 20 -35.3535
-7.77505 20 -34.3434
-7.77505 20 -33.3333
-7.77505 20 -32.3232
-7.77505 20 -31.3131
-7.77505 20 -30.303
-7.77505 20 -29.2929
-7.77505 20 -28.2828
-7.77505 20 -27.2727
-7.77505 20 -26.2626
-7.77505 20 -25.2525
-7.77505 20 -24.2424
-7.77505 20 -23.2323
-7.77505 20 -22.2222
-7.77505 20 -21.2121
-7.77505 20 -20.202
-7.77505 20 -19.1919
-7.77505 20 -18.1818
-7.77505 20 -17.1717
-7.77505 20 -16.1616
-7.77505 20 -15.1515
-7.77505 20 -14.1414
-7.77505 20 -13.1313
-7.77505 20 -12.1212
-7.77505 20 -11.1111
-7.77505 20 -10.101
-7.77505 20 -9.09091
-7.77505 20 -8.08081
-7.77505 20 -7.07071
-7.77505 20 -6.06061
-7.77505 20 -5.05051
-7.77505 20 -4.0404
-7.77505 20 -3.0303
-7.77505 20 -2.0202
-7.77505 20 -1.0101
-7.77505 20 0
-8.77984 20 -100
-8.77984 20 -98.9899
-8.77984 20 -97.9798
-8.77984 20 -96.9697
-8.77984 20 -95.9596
-8.77984 20 -94.9495
-8.77984 20 -93.9394
-8.77984 20 -92.9293
-8.77984 20 -91.9192
-8.77984 20 -90.9091
-8.77984 20 -89.899
-8.77984 20 -88.8889
-8.77984 20 -87.8788
-8.77984 20 -86.8687
-8.77984 20 -85.8586
-8.77984 20 -84.8485
-8.77984 20 -83.8384
-8.77984 20 -82.8283
-8.77984 20 -81.8182
-8.77984 20 -80.8081
-8.77984 20 -79.798
-8.77984 20 -78.7879
-8.77984 20 -77.7778
-8.77984 20 -76.7677
-8.77984 20 -75.7576
-8.77984 20 -74.7475
-8.77984 20 -73.7374
-8.77984 20 -72.7273
-8.77984 20 -71.7172
-8.77984 20 -70.7071
-8.77984 20 -69.697
-8.77984 20 -68.6869
-8.77984 20 -67.6768
-8.77984 20 -66.6667
-8.77984 20 -65.6566
-8.77984 20 -64.6465
-8.77984 20 -63.6364
-8.77984 20 -62.6263
-8.77984 20 -61.6162
-8.77984 20 -60.6061
-8.77984 20 -59.596
-8.77984 20 -58.5859
-8.77984 20 -57.5758
-8.77984 20 -56.5657
-8.77984 20 -55.5556
-8.77984 20 -54.5455
-8.77984 20 -53.5354
-8.77984 20 -52.5253
-8.77984 20 -51.5152
-8.77984 20 -50.5051
-8.77984 20 -49.4949
-8.77984 20 -48.4848
-8.77984 20 -47.4747
-8.77984 20 -46.4646
-8.77984 20 -45.4545
-8.77984 20 -44.4444
-8.77984 20 -43.4343
-8.77984 20 -42.4242
-8.77984 20 -41.4141
-8.77984 20 -40.404
-8.77984 20 -39.3939
-8.77984 20 -38.3838
-8.77984 20 -37.3737
-8.77984 20 -36.3636
-8.77984 20 -35.3535
-8.77984 20 -34.3434
-8.77984 20 -33.3333
-8.77984 20 -32.3232
-8.77984 20 -31.3131
-8.77984 20 -30.303
-8.77984 20 -29.2929
-8.77984 20 -28.2828
-8.77984 20 -27.2727
-8.77984 20 -26.2626
-8.77984 20 -25.2525
-8.77984 20 -24.2424
-8.77984 20 -23.2323
-8.77984 20 -22.2222
-8.77984 20 -21.2121
-8.77984 20 -20.202
-8.77984 20 -19.1919
-8.77984 20 -18.1818
-8.77984 20 -17.1717
-8.77984 20 -16.1616
-8.77984 20 -15.1515
-8.77984 20 -14.1414
-8.77984 20 -13.1313
-8.77984 20 -12.1212
-8.77984 20 -11.1111
-8.77984 20 -10.101
-8.77984 20 -9.09091
-8.77984 20 -8.08081
-8.77984 20 -7.07071
-8.77984 20 -6.06061
-8.77984 20 -5.05051
-8.77984 20 -4.0404
-8.77984 20 -3.0303
-8.77984 20 -2.0202
-8.77984 20 -1.0101
-8.77984 20 0
-9.78462 20 -100
-9.78462 20 -98.9899
-9.78462 20 -97.9798
-9.78462 20 -96.9697
-9.78462 20 -95.9596
-9.78462 20 -94.9495
-9.78462 20 -93.9394
-9.78462 20 -92.9293
-9.78462 20 -91.9192
-9.78462 20 -90.9091
-9.78462 20 -89.899
-9.78462 20 -88.8889
-9.78462 20 -87.8788
-9.78462 20 -86.8687
-9.78462 20 -85.8586
-9.78462 20 -84.8485
-9.78462 20 -83.8384
-9.78462 20 -82.8283
-9.78462 20 -81.8182
-9.78462 20 -80.8081
-9.78462 20 -79.798
-9.78462 20 -78.7879
-9.78462 20 -77.7778
-9.78462 20 -76.7677
-9.78462 20 -75.7576
-9.78462 20 -74.7475
-9.78462 20 -73.7374
-9.78462 20 -72.7273
-9.78462 20 -71.7172
-9.78462 20 -70.7071
-9.78462 20 -69.697
-9.78462 20 -68.6869
-9.78462 20 -67.6768
-9.78462 20 -66.6667
-9.78462 20 -65.6566
-9.78462 20 -64.6465
-9.78462 20 -63.6364
-9.78462 20 -62.6263
-9.78462 20 -61.6162
-9.78462 20 -60.6061
-9.78462 20 -59.596
-9.78462 20 -58.5859
-9.78462 20 -57.5758
-9.78462 20 -56.5657
-9.78462 20 -55.5556
-9.78462 20 -54.5455
-9.78462 20 -53.5354
-9.78462 20 -52.5253
-9.78462 20 -51.5152
-9.78462 20 -50.5051
-9.78462 20 -49.4949
-9.78462 20 -48.4848
-9.78462 20 -47.4747
-9.78462 20 -46.4646
-9.78462 20 -45.4545
-9.78462 20 -44.4444
-9.78462 20 -43.4343
-9.78462 20 -42.4242
-9.78462 20 -41.4141
-9.78462 20 -40.404
-9.78462 20 -39.3939
-9.78462 20 -38.3838
-9.78462 20 -37.3737
-9.78462 20 -36.3636
-9.78462 20 -35.3535
-9.78462 20 -34.3434
-9.78462 20 -33.3333
-9.78462 20 -32.3232
-9.78462 20 -31.3131
-9.78462 20 -30.303
-9.78462 20 -29.2929
-9.78462 20 -28.2828
-9.78462 20 -27.2727
-9.78462 20 -26.2626
-9.78462 20 -25.2525
-9.78462 20 -24.2424
-9.78462 20 -23.2323
-9.78462 20 -22.2222
-9.78462 20 -21.2121
-9.78462 20 -20.202
-9.78462 20 -19.1919
-9.78462 20 -18.1818
-9.78462 20 -17.1717
-9.78462 20 -16.1616
-9.78462 20 -15.1515
-9.78462 20 -14.1414
-9.78462 20 -13.1313
-9.78462 20 -12.1212
-9.78462 20 -11.1111
-9.78462 20 -10.101
-9.78462 20 -9.09091
-9.78462 20 -8.08081
-9.78462 20 -7.07071
-9.78462 20 -6.06061
-9.78462 20 -5.05051
-9.78462 20 -4.0404
-9.78462 20 -3.0303
-9.78462 20 -2.0202
-9.78462 20 -1.0101
-9.78462 20 0
-10.7894 20 -100
-10.7894 20 -98.9899
-10.7894 20 -97.9798
-10.7894 20 -96.9697
-10.7894 20 -95.9596
-10.7894 20 -94.9495
-10.7894 20 -93.9394
-10.7894 20 -92.9293
-10.7894 20 -91.9192
-10.7894 20 -90.9091
-10.7894 20 -89.899
-10.7894 20 -88.8889
-10.7894 20 -87.8788
-10.7894 20 -86.8687
-10.7894 20 -85.8586
-10.7894 20 -84.8485
-10.7894 20 -83.8384
-10.7894 20 -82.8283
-10.7894 20 -81.8182
-10.7894 20 -80.8081
-10.7894 20 -79.798
-10.7894 20 -78.7879
-10.7894 20 -77.7778
-10.7894 20 -76.7677
-10.7894 20 -75.7576
-10.7894 20 -74.7475
-10.7894 20 -73.7374
-10.7894 20 -72.7273
-10.7894 20 -71.7172
-10.7894 20 -70.7071
-10.7894 20 -69.697
-10.7894 20 -68.6869
-10.7894 20 -67.6768
-10.7894 20 -66.6667
-10.7894 20 -65.6566
-10.7894 20 -64.6465
-10.7894 20 -63.6364
-10.7894 20 -62.6263
-10.7894 20 -61.6162
-10.7894 20 -60.6061
-10.7894 20 -59.596
-10.7894 20 -58.5859
-10.7894 20 -57.5758
-10.7894 20 -56.5657
-10.7894 20 -55.5556
-10.7894 20 -54.5455
-10.7894 20 -53.5354
-10.7894 20 -52.5253
-10.7894 20 -51.5152
-10.7894 20 -50.5051
-10.7894 20 -49.4949
-10.7894 20 -48.4848
-10.7894 20 -47.4747
-10.7894 20 -46.4646
-10.7894 20 -45.4545
-10.7894 20 -44.4444
-10.7894 20 -43.4343
-10.7894 20 -42.4242
-10.7894 20 -41.4141
-10.7894 20 -40.404
-10.7894 20 -39.3939
-10.7894 20 -38.3838
-10.7894 20 -37.3737
-10.7894 20 -36.3636
-10.7894 20 -35.3535
-10.7894 20 -34.3434
-10.7894 20 -33.3333
-10.7894 20 -32.3232
-10.7894 20 -31.3131
-10.7894 20 -30.303
-10.7894 20 -29.2929
-10.7894 20 -28.2828
-10.7894 20 -27.2727
-10.7894 20 -26.2626
-10.7894 20 -25.2525
-10.7894 20 -24.2424
-10.7894 20 -23.2323
-10.7894 20 -22.2222
-10.7894 20 -21.2121
-10.7894 20 -20.202
-10.7894 20 -19.1919
-10.7894 20 -18.1818
-10.7894 20 -17.1717
-10.7894 20 -16.1616
-10.7894 20 -15.1515
-10.7894 20 -14.1414
-10.7894 20 -13.1313
-10.7894 20 -12.1212
-10.7894 20 -11.1111
-10.7894 20 -10.101
-10.7894 20 -9.09091
-10.7894 20 -8.08081
-10.7894 20 -7.07071
-10.7894 20 -6.06061
-10.7894 20 -5.05051
-10.7894 20 -4.0404
-10.7894 20 -3.0303
-10.7894 20 -2.0202
-10.7894 20 -1.0101
-10.7894 20 0
-11.7942 20 -100
-11.7942 20 -98.9899
-11.7942 20 -97.9798
-11.7942 20 -96.9697
-11.7942 20 -95.9596
-11.7942 20 -94.9495
-11.7942 20 -93.9394
-11.7942 20 -92.9293
-11.7942 20 -91.9192
-11.7942 20 -90.9091
-11.7942 20 -89.899
